-0.13512565 0.56613618 0.02062707
-0.02379374 0.80978978 0.03689692
0.25506163 0.72393346 -0.07697066
-0.14530763 -0.67624480 0.07887226
0.05751150 0.83783877 0.03694778
0.03969816 -0.33787006 -0.08184794
0.10771239 0.29743895 0.05168566
0.59717369 0.70572084 -0.10312627
0.07465035 -0.37669915 -0.02398584
-0.10935130 -0.43912545 -0.12368865
0.15126866 0.44226772 -0.04118608
-0.08936641 0.51381636 0.05781307
-0.06101538 -0.10167103 -0.09613895
0.05120777 0.85373205 -0.08299500
0.15165916 0.71140707 -0.00889566
-0.10127488 -0.03456074 -0.10790791
-0.08902726 -0.06690083 -0.10736781
0.13894367 -0.28933033 -0.03478363
0.13492346 -0.08755806 0.03135236
0.69213712 0.70575511 -0.08944659
-0.10859674 -0.54479730 -0.04067479
-0.17606317 0.61127925 -0.03113930
-0.14400198 0.64641994 0.01577407
0.07718112 0.97324222 -0.01551507
-0.01907206 0.20339741 -0.16549696
0.07686128 0.61624151 0.05640794
0.08400460 0.96062684 -0.05300285
0.05611802 0.99502683 -0.09103060
0.15158637 -0.01284774 0.02890332
-0.04651669 0.06192676 -0.11382315
0.13713987 0.63030392 -0.14706402
0.01084922 0.25471020 0.09498238
-0.01100784 0.15980659 0.08930331
0.00648950 0.89632505 0.09255673
-0.04880875 -0.38116211 -0.09724374
0.00882112 0.73699123 -0.12489293
-0.14787614 0.45319453 -0.04417478
0.87786222 0.67654920 -0.09558148
-0.07586186 -0.65154219 -0.07282826
0.55423361 0.66926849 -0.11679097
-0.25382602 0.71188331 -0.11306276
0.05289695 0.26469958 0.08456678
0.05093880 0.97007066 -0.11681949
0.06781387 -0.62396020 -0.01785553
0.07273335 0.31688884 0.08590456
-0.10119575 0.42769849 0.05426022
0.08653487 -0.10705310 -0.09602553
0.00726086 1.02678704 -0.04230688
0.75769734 0.68868119 -0.05041293
-0.08929861 0.00774046 -0.11195324
0.10240461 0.57949507 0.06395024
0.24270621 0.63474917 -0.05376754
-0.07832550 0.72650379 -0.02576189
-0.48919138 0.70802498 -0.12593761
-0.08397529 -0.07696448 0.04604904
-0.18049178 0.58417100 -0.10723234
-0.14398459 -0.15132952 -0.01884045
-0.13436219 0.47944221 -0.10809425
0.25601980 0.65080130 -0.03111775
0.16803092 0.14814597 -0.00189886
-0.01387519 0.61266917 0.05237267
0.10421325 0.41683620 0.05848882
0.06499699 0.90102839 0.03657424
-0.09495962 0.61283082 0.04712702
-0.00873810 0.42186645 0.10134142
0.59633976 0.65975457 -0.10801671
-0.06878781 0.12211304 0.06571820
-0.06829329 0.70745808 -0.14367411
0.07322388 0.87727922 0.01422246
-0.06975137 0.24605204 -0.15521953
0.09148003 0.10757140 0.07440487
-0.06760603 0.93107474 -0.07900505
-0.21082413 0.72793597 -0.03936014
0.02979326 0.66791087 -0.15469845
-0.45071855 0.73504752 -0.08286000
0.02844593 -0.17197838 -0.06767111
-0.25408223 0.72472799 -0.09520672
-0.18608460 0.74127966 -0.07397935
0.06906439 0.20055376 0.06677795
-0.24702935 0.65564728 -0.03085861
0.07238640 -0.68390983 -0.01843683
0.15621570 0.49192914 -0.06483015
0.09924503 0.50015748 0.06108512
-0.36700436 0.65255725 -0.05533856
-0.04887978 -0.08976683 0.02141320
0.05597191 -0.15154977 0.03350062
0.15694822 0.59630638 0.00425144
-0.14888753 -0.13570067 -0.03782894
0.31354129 0.63887793 -0.05756478
0.07011691 0.11750734 0.07442297
0.22247393 0.62301242 -0.10045449
-0.17352767 0.23298104 -0.02604307
0.28048107 0.69600987 -0.03167524
0.09952393 -0.42614573 -0.11798000
-0.05056025 0.27039388 -0.14760254
0.29700598 0.66970080 -0.02669903
-0.13407384 -0.01690252 -0.09492826
0.05724821 -0.05561927 0.05189973
-0.01991431 0.24635500 -0.15695105
0.63241148 0.66172546 -0.07318684
0.11905139 0.59037346 0.05245706
-0.07876121 -0.60053039 -0.03428208
-0.06728876 0.45537385 -0.14439982
0.08671711 0.73155659 -0.12640937
-0.13924824 0.55262274 -0.13084957
0.16209966 0.13175613 -0.07818826
-0.32677159 0.64971709 -0.05702347
-0.12889659 -0.49423197 -0.10757365
-0.14046310 0.49663392 -0.00246002
-0.07496102 -0.25888187 -0.10506042
0.05303996 0.60675669 -0.16904810
0.03972284 0.10174076 -0.12902197
0.16829275 0.54892188 -0.06675585
-0.16870278 0.25614816 -0.02039849
0.04139936 0.18841240 -0.16544698
-0.07653353 -0.67155248 -0.03534365
-0.03429003 0.50369090 -0.15487388
0.00475150 0.34327093 0.10725300
0.07746663 0.26472226 0.07137790
0.42750308 0.72648859 -0.05851914
-0.17554003 0.09340249 -0.00019486
0.16470927 0.01347419 -0.00249726
0.38696143 0.67097807 -0.11092380
-0.14517419 0.06448403 -0.10035951
0.05413653 -0.44732910 -0.09482998
0.02158435 0.00847153 0.03478975
0.05858776 -0.30954668 -0.02774425
0.06799436 0.17825121 0.06657872
-0.09592712 -0.21254778 0.02589539
0.16156325 0.19919883 0.01411213
-0.07502560 -0.58633894 -0.07748611
-0.17561270 0.02728665 -0.02980010
0.14915532 0.44255081 -0.01102316
-0.06957990 0.89517766 -0.03964126
0.32992378 0.69321638 -0.10887074
0.05091615 -0.32849538 -0.03668850
0.01114244 -0.04985778 -0.01232457
0.00891947 -0.02787194 -0.00188938
0.45922777 0.71631140 -0.04517939
-0.09539034 0.28756803 0.06407630
0.06238610 0.73338491 -0.13007332
0.02008193 -0.04936276 -0.06945734
-0.35911170 0.71810025 -0.06090705
0.08607445 -0.59669477 -0.10719245
0.08014166 0.34116274 -0.12035603
-0.04608613 -0.33979461 -0.08245879
0.13545296 0.18211628 0.04265431
-0.16760962 0.64898944 -0.13462195
0.00785389 0.12746330 -0.13760313
-0.06934360 -0.49962524 -0.07254625
-0.04697879 0.87366343 -0.09286817
0.09410837 -0.20015036 -0.09107006
-0.15328360 0.30507153 -0.05703660
-0.12504859 0.13343310 0.05654657
-0.04834252 0.39806443 0.09743859
-0.07709898 -0.17175990 -0.09623548
-0.13903987 -0.64900541 -0.02107163
-0.13508560 0.18717894 -0.12531656
-0.22125505 0.66134948 -0.12586924
-0.05335380 -0.26428059 -0.08393355
0.01736909 -0.12988591 -0.02849549
0.05978485 -0.66510236 -0.00699054
0.13283749 -0.17488167 -0.05800752
-0.10828292 0.32350099 -0.11541347
-0.10505244 0.03837885 0.06728607
0.51822859 0.68627906 -0.04446534
-0.03924929 0.82927984 -0.07365688
-0.07410248 -0.65458506 0.00687714
-0.82784563 0.68076384 -0.11369651
0.13918586 -0.25818482 -0.05670168
-0.00363829 0.27533638 -0.14516392
-0.19868582 0.59757334 -0.09782137
0.04750743 -0.43107253 -0.05687530
0.65046579 0.67754972 -0.11023618
0.00484736 0.33630502 -0.12329938
0.06667337 -0.57687569 -0.08997263
0.13122490 0.69257987 -0.14037165
0.09164272 0.12441932 -0.14726639
-0.10801449 -0.28445983 -0.11991624
0.11882737 0.26933122 0.04259880
-0.14009058 -0.37947804 -0.11850017
0.13703068 -0.34720737 -0.02706512
0.38830313 0.69825292 -0.10310256
-0.06376278 0.97757894 -0.06432738
0.53923696 0.65168065 -0.10561584
0.00780846 0.79262555 -0.09492712
0.09129699 0.61752683 -0.16744310
0.07863074 0.92520320 -0.00522578
0.07675092 -0.50685769 -0.10611165
0.12212647 -0.51067394 -0.08885412
-0.06373502 0.68008351 0.01716363
-0.16113985 -0.07177041 -0.00581719
-0.01000431 0.79361653 0.02766857
0.11554261 -0.22242497 -0.08585274
-0.01231960 1.02180910 -0.02745106
-0.11645664 -0.37063292 -0.13074411
0.04127428 -0.26598707 -0.03264713
-0.19528694 0.63823169 -0.12140239
-0.12820578 0.37090549 0.02994549
0.40825689 0.71070224 -0.09313178
0.12001145 -0.20649178 0.00584366
0.01210475 0.66885805 0.03291591
0.05926686 -0.30626538 -0.10371397
-0.15174711 -0.33974221 -0.10400241
-0.85125667 0.68804818 -0.14434654
-0.12201577 0.09028945 -0.12336767
0.13306533 0.65125591 0.02415911
-0.00948233 1.01865196 -0.07584601
0.16856618 0.09685007 -0.05589166
-0.08570471 0.73917246 -0.05057393
0.68850851 0.69846654 -0.05971749
0.57923752 0.71609759 -0.07506290
0.10685055 0.19233720 -0.14691871
0.11128955 -0.27397850 -0.10499214
0.09724745 -0.30887735 -0.11806540
0.08976185 0.08072597 0.07718318
-0.16192719 -0.00609897 -0.06410352
-0.08947994 0.53634268 -0.15357584
0.00364015 0.89780331 -0.13159683
0.17300326 0.60750258 -0.02410040
-0.05734354 0.71810633 -0.00556093
0.00317047 0.20611122 0.08859187
0.07151988 -0.48512715 -0.04057099
-0.04002714 0.51004249 0.07494882
-0.14298406 0.23546374 -0.11139745
-0.60227144 0.71205026 -0.07884916
0.17096913 0.09017461 -0.01603646
0.09842866 0.08843414 -0.12503067
0.29491779 0.64935565 -0.04005572
0.06157026 0.78811836 -0.04567918
-0.06048510 0.86666143 -0.04297658
0.09152137 -0.60883909 -0.01767474
-0.01588361 0.90675014 0.05496271
-0.08491524 -0.64823496 0.04121321
0.01937965 0.16411306 -0.16146185
0.08648308 0.42655423 0.07364344
0.29699802 0.64879495 -0.11387338
0.15275852 0.05920652 -0.07810236
-0.10473562 -0.41864142 -0.02830430
0.02802567 0.64485878 0.04421371
-0.17158283 0.21031407 -0.05712275
-0.06379509 0.60692990 -0.16955362
-0.02675046 0.49365437 0.08144312
-0.52440959 0.64977998 -0.08738308
0.13441074 -0.66740376 0.03777980
-0.06011121 0.97082567 -0.08803514
0.04100370 0.03559713 -0.10318729
0.06291726 -0.60790390 -0.07723184
0.06970294 -0.65017748 -0.10225280
0.13717905 -0.07302985 -0.06735399
-0.12652451 0.03762129 0.06114341
-0.08930419 -0.68243748 -0.01845659
-0.67108703 0.69903547 -0.07262357
0.06263417 0.73809594 -0.02078875
-0.06034985 0.60983282 0.05631672
0.08529919 -0.53260726 -0.03364887
